ply
format ascii 1.0
element vertex 1284
property float x
property float y
property float z
property uchar red
property uchar green
property uchar blue
end_header
3.915343 -3.041426 5.061896 17 17 24
3.932962 -3.075898 4.961911 16 16 23
3.964570 -3.137738 4.782542 16 16 23
4.050990 -3.197930 4.802650 23 23 32
4.137411 -3.258122 4.822758 30 30 42
4.223831 -3.318314 4.842866 36 36 51
4.310251 -3.378505 4.862974 43 43 60
4.396671 -3.438697 4.883082 50 50 70
4.483091 -3.498889 4.903190 57 57 80
4.569511 -3.559081 4.923298 64 64 90
4.655931 -3.619273 4.943406 70 70 98
4.742351 -3.679465 4.963513 77 77 108
4.828772 -3.739657 4.983621 84 86 116
4.985106 -3.848544 5.019997 97 102 128
5.057667 -3.920959 5.051410 104 112 135
5.130227 -3.993374 5.082823 111 122 142
5.243030 -4.109234 5.143238 122 137 154
5.341796 -4.194298 5.169051 131 149 163
5.427246 -4.267185 5.193532 138 159 170
5.241166 -4.133430 5.064264 121 136 153
5.379966 -4.253279 5.099606 133 153 165
5.417314 -4.285015 5.110673 137 158 169
5.276049 -4.187207 5.001183 125 141 156
5.342113 -4.244198 5.018166 130 148 162
5.375492 -4.272387 5.028588 133 153 165
5.238842 -4.082087 5.213753 121 136 153
5.370643 -4.195507 5.248484 133 153 165
5.409053 -4.227734 5.261118 137 158 169
5.110478 -3.907861 5.184817 108 118 140
5.187861 -3.911385 5.292108 113 125 145
5.262826 -3.923792 5.379548 119 134 151
4.355742 -2.614567 6.579488 15 15 21
4.436820 -2.609659 6.509502 16 16 23
4.517898 -2.604752 6.439516 16 16 23
4.598976 -2.599844 6.369529 17 17 24
4.680054 -2.594937 6.299543 18 18 25
4.761132 -2.590029 6.229557 19 19 26
4.842211 -2.585122 6.159570 20 20 28
4.943796 -2.578973 6.071882 21 20 29
4.956352 -2.636109 5.982029 21 21 30
4.968908 -2.693244 5.892175 22 22 31
4.981464 -2.750380 5.802321 24 24 34
4.994020 -2.807516 5.712467 25 25 35
5.006576 -2.864652 5.622614 26 26 36
5.019132 -2.921787 5.532760 27 27 37
5.031688 -2.978923 5.442906 28 28 40
5.044244 -3.036059 5.353053 29 29 41
5.056800 -3.093195 5.263199 30 30 42
5.069357 -3.150330 5.173345 32 32 45
5.081913 -3.207466 5.083491 33 33 46
5.094980 -3.266927 4.989980 34 34 47
5.072644 -3.343962 4.918828 35 35 49
5.050308 -3.420997 4.847677 37 37 52
5.027972 -3.498032 4.776525 39 39 54
5.005636 -3.575067 4.705373 41 41 57
4.983300 -3.652101 4.634221 42 42 59
4.960964 -3.729136 4.563069 44 44 62
4.938628 -3.806171 4.491918 46 46 64
4.916293 -3.883206 4.420766 48 48 66
4.893957 -3.960240 4.349614 49 49 69
4.851305 -4.107341 4.213748 53 53 74
4.787299 -4.183083 4.172979 59 59 82
4.723292 -4.258825 4.132210 65 65 91
4.583957 -4.420662 4.055601 78 78 109
4.511187 -4.507936 3.999141 87 89 119
4.456064 -4.587762 3.950014 95 100 127
4.648256 -4.467180 4.048232 81 81 113
4.556513 -4.588515 3.971811 92 96 124
4.531618 -4.628363 3.947866 96 101 128
4.686654 -4.541977 4.022058 86 88 118
4.645194 -4.599800 3.986137 91 95 123
4.626670 -4.631222 3.967499 94 99 126
4.537303 -4.362767 4.072128 75 75 104
4.435723 -4.485153 3.993051 87 89 119
4.411831 -4.523674 3.969938 91 94 122
4.546773 -4.171780 4.081993 63 62 87
4.451197 -4.176640 4.043288 66 66 92
4.404689 -4.184902 4.020446 69 69 96
4.209178 -2.694813 6.732952 19 19 26
4.166458 -2.642093 6.815968 19 19 26
4.083026 -2.535970 6.980827 18 18 25
3.781522 -1.794917 4.375535 20 20 28
4.158936 -1.680334 4.204138 21 20 29
4.149623 -1.761726 4.134968 20 20 28
4.140310 -1.843117 4.065798 20 20 28
4.130996 -1.924509 3.996627 19 19 26
4.121683 -2.005900 3.927457 19 19 26
4.112370 -2.087292 3.858287 18 18 25
4.103057 -2.168683 3.789116 18 18 25
4.093744 -2.250074 3.719946 17 17 24
4.084431 -2.331466 3.650775 16 16 23
4.075118 -2.412857 3.581605 16 16 23
4.065805 -2.494249 3.512435 15 15 21
4.056492 -2.575640 3.443264 15 15 21
4.047179 -2.657032 3.374094 14 14 20
4.037866 -2.738423 3.304924 14 14 20
4.028553 -2.819814 3.235753 14 13 19
4.019240 -2.901206 3.166583 14 13 19
4.009927 -2.982597 3.097413 13 13 18
4.000614 -3.063989 3.028242 12 12 17
3.991301 -3.145380 2.959072 12 12 17
3.977756 -3.263763 2.858465 11 11 15
3.947149 -3.242227 2.757990 11 11 15
3.916542 -3.220692 2.657515 11 11 15
3.885936 -3.199156 2.557039 11 11 15
3.855329 -3.177620 2.456564 11 11 15
3.824722 -3.156085 2.356089 11 11 15
3.794116 -3.134549 2.255613 11 11 15
3.763509 -3.113013 2.155138 11 11 15
3.732902 -3.091478 2.054663 10 10 14
3.702296 -3.069942 1.954187 10 10 14
3.671689 -3.048406 1.853712 10 10 14
3.641082 -3.026871 1.753237 10 10 14
3.610475 -3.005335 1.652762 10 10 14
3.579869 -2.983799 1.552286 10 10 14
3.549262 -2.962264 1.451811 10 10 14
3.518655 -2.940728 1.351336 10 10 14
3.488049 -2.919193 1.250860 10 10 14
3.457442 -2.897657 1.150385 10 10 14
3.425121 -2.874915 1.044283 10 10 14
3.492208 -2.917018 0.972015 8 8 12
3.559295 -2.959120 0.899748 7 7 10
3.626382 -3.001222 0.827481 7 6 9
3.693469 -3.043325 0.755213 5 5 7
3.804990 -3.113350 0.637890 3 3 4
3.365909 -1.769965 4.300612 23 23 32
3.340454 -1.820691 4.209647 23 23 32
3.314999 -1.871418 4.118682 22 22 31
3.289544 -1.922145 4.027717 22 22 31
3.264089 -1.972872 3.936751 22 22 31
3.238634 -2.023598 3.845786 21 21 30
3.213179 -2.074325 3.754821 21 21 30
3.187725 -2.125052 3.663856 21 20 29
3.162270 -2.175779 3.572890 21 20 29
3.136815 -2.226505 3.481925 21 20 29
3.111360 -2.277232 3.390960 20 20 28
3.085905 -2.327959 3.299995 20 20 28
3.060450 -2.378686 3.209029 20 20 28
3.034995 -2.429412 3.118064 19 19 26
3.009540 -2.480139 3.027099 19 19 26
2.984085 -2.530866 2.936134 19 19 26
2.958630 -2.581593 2.845168 18 18 25
2.933175 -2.632319 2.754203 18 18 25
2.907720 -2.683046 2.663238 17 17 24
2.873015 -2.752208 2.539215 17 17 24
2.843025 -2.681334 2.464560 18 18 25
2.813035 -2.610460 2.389906 19 19 26
2.783045 -2.539586 2.315251 21 20 29
2.753054 -2.468713 2.240596 21 21 30
2.723064 -2.397839 2.165941 22 22 31
2.693074 -2.326965 2.091286 23 23 32
2.663084 -2.256091 2.016632 25 25 35
2.633094 -2.185217 1.941977 26 26 36
2.603104 -2.114344 1.867322 27 27 37
2.573114 -2.043470 1.792667 28 28 40
2.543124 -1.972596 1.718012 29 29 41
2.513134 -1.901722 1.643358 30 30 42
2.483144 -1.830849 1.568703 31 31 43
2.453154 -1.759975 1.494048 33 33 46
2.423164 -1.689101 1.419393 34 34 47
2.393174 -1.618227 1.344738 35 34 48
2.363184 -1.547353 1.270084 35 35 49
2.331514 -1.472510 1.191248 37 37 52
2.313170 -1.469502 1.085653 37 37 52
2.294826 -1.466495 0.980058 38 38 53
2.276482 -1.463487 0.874463 39 39 54
2.258138 -1.460479 0.768868 40 40 56
2.226656 -1.457148 0.595366 41 41 57
3.828071 -1.824674 4.672692 19 19 26
3.845438 -1.853899 4.774379 18 18 25
3.862804 -1.883124 4.876066 17 17 24
3.885111 -1.920663 5.006678 16 16 23
3.899727 -1.935629 5.111836 16 16 23
3.914344 -1.950596 5.216994 16 16 23
3.928960 -1.965562 5.322151 15 15 21
3.943577 -1.980529 5.427309 15 15 21
3.962709 -2.000119 5.564957 14 14 20
3.976315 -2.022084 5.669016 14 14 20
3.989921 -2.044048 5.773075 14 14 20
4.003527 -2.066012 5.877134 14 13 19
4.017133 -2.087976 5.981193 14 13 19
4.030739 -2.109940 6.085252 14 13 19
4.051760 -2.143874 6.246021 13 13 18
4.065246 -2.209973 6.329358 14 13 19
4.078733 -2.276071 6.412694 14 13 19
4.092219 -2.342170 6.496030 14 13 19
4.117504 -2.466097 6.652277 14 14 20
3.953725 -2.615961 6.695397 17 17 24
3.907987 -2.609256 6.598655 18 18 25
3.862250 -2.602551 6.501914 18 18 25
3.816512 -2.595845 6.405172 19 19 26
3.770775 -2.589140 6.308431 20 20 28
3.689424 -2.577214 6.136363 21 20 29
3.704661 -2.626607 6.042427 21 20 29
3.719898 -2.676000 5.948491 21 21 30
3.735135 -2.725393 5.854555 21 21 30
3.750372 -2.774786 5.760619 22 22 31
3.765609 -2.824179 5.666682 22 22 31
3.780846 -2.873573 5.572746 23 23 32
3.796083 -2.922966 5.478810 23 23 32
3.811320 -2.972359 5.384874 24 24 34
3.826557 -3.021752 5.290938 24 24 34
3.841794 -3.071145 5.197002 24 24 34
3.857031 -3.120538 5.103066 25 25 35
3.884366 -3.209146 4.934549 26 26 36
3.935141 -3.297723 4.967290 32 32 45
3.985915 -3.386299 5.000032 38 38 53
4.036690 -3.474875 5.032773 45 45 63
4.087465 -3.563452 5.065514 51 51 71
4.138240 -3.652028 5.098255 57 57 80
4.189015 -3.740604 5.130996 63 63 88
4.239790 -3.829181 5.163737 70 69 97
4.290565 -3.917757 5.196478 77 76 107
4.341340 -4.006333 5.229219 83 83 114
4.392115 -4.094910 5.261960 89 92 121
4.483967 -4.255145 5.321189 100 107 132
4.515602 -4.348795 5.362717 107 117 139
4.547237 -4.442446 5.404245 113 125 145
4.593346 -4.590446 5.480191 124 140 156
4.644399 -4.706426 5.520177 132 151 163
4.688529 -4.806012 5.556904 140 161 171
4.593856 -4.615902 5.401593 124 140 156
4.665621 -4.779222 5.456862 135 155 167
4.684902 -4.822619 5.473279 139 160 170
4.613243 -4.682293 5.344110 126 143 158
4.647398 -4.759972 5.370578 132 151 163
4.664619 -4.798569 5.385776 135 155 167
4.589837 -4.560306 5.549517 124 140 156
4.657961 -4.714978 5.603161 134 154 166
4.677767 -4.759167 5.621285 138 159 170
4.548407 -4.351050 5.502991 111 122 142
4.600654 -4.379672 5.621155 116 129 148
4.650142 -4.416478 5.719214 121 136 153
4.306427 -2.577955 6.673123 15 15 21
4.391549 -2.591977 6.609457 16 16 23
4.476672 -2.605998 6.545790 17 17 24
4.561794 -2.620020 6.482124 19 19 26
4.646916 -2.634042 6.418457 20 20 28
4.732038 -2.648063 6.354791 21 21 30
4.817161 -2.662085 6.291124 22 22 31
4.923813 -2.679653 6.211355 24 24 34
4.923728 -2.735351 6.119738 24 24 34
4.923642 -2.791049 6.028122 25 25 35
4.923557 -2.846747 5.936506 26 26 36
4.923472 -2.902445 5.844889 26 26 36
4.923387 -2.958143 5.753273 27 27 37
4.923302 -3.013841 5.661656 28 27 38
4.923217 -3.069539 5.570040 28 28 40
4.923131 -3.125238 5.478424 28 28 40
4.923046 -3.180936 5.386807 29 29 41
4.922961 -3.236634 5.295191 30 30 42
4.922876 -3.292332 5.203574 30 30 42
4.922787 -3.350297 5.108229 31 31 43
4.882134 -3.421928 5.039584 34 34 47
4.841480 -3.493560 4.970940 35 35 49
4.800827 -3.565192 4.902296 38 38 53
4.760173 -3.636823 4.833652 41 41 57
4.719520 -3.708455 4.765007 42 42 59
4.678867 -3.780087 4.696363 45 45 63
4.638213 -3.851719 4.627719 47 47 65
4.597560 -3.923350 4.559075 49 49 69
4.556906 -3.994982 4.490430 52 52 73
4.479277 -4.131765 4.359352 56 56 79
4.401570 -4.185674 4.308843 57 57 80
4.323862 -4.239583 4.258334 59 59 82
4.154717 -4.355102 4.160762 63 62 87
4.066685 -4.416594 4.093169 65 65 91
3.997106 -4.475843 4.034241 68 68 94
4.206408 -4.414965 4.150908 64 64 90
4.093037 -4.502933 4.059324 67 67 93
4.060812 -4.533198 4.030575 69 69 96
4.227351 -4.494143 4.118564 66 66 92
4.175486 -4.536659 4.075493 68 68 94
4.151134 -4.560816 4.053103 69 69 96
4.122309 -4.289365 4.181499 61 61 85
3.999305 -4.375719 4.086823 64 64 90
3.968320 -4.405022 4.059072 66 66 92
4.176392 -4.108101 4.211189 56 55 77
4.084837 -4.086076 4.168891 56 55 77
4.039115 -4.080689 4.143721 56 55 77
4.143424 -2.634402 6.820483 17 17 24
4.100622 -2.578830 6.901572 17 17 24
4.017257 -2.467243 7.062719 17 17 24
3.893981 -1.756452 4.447831 19 19 26
4.285028 -1.691253 4.281164 21 20 29
4.266499 -1.768695 4.209364 20 20 28
4.247969 -1.846137 4.137564 20 20 28
4.229440 -1.923579 4.065764 19 19 26
4.210911 -2.001021 3.993964 19 19 26
4.192381 -2.078463 3.922164 18 18 25
4.173852 -2.155905 3.850364 18 18 25
4.155323 -2.233347 3.778564 17 17 24
4.136794 -2.310789 3.706765 17 17 24
4.118264 -2.388231 3.634965 16 16 23
4.099735 -2.465673 3.563165 16 16 23
4.081206 -2.543115 3.491365 15 15 21
4.062676 -2.620558 3.419565 15 15 21
4.044147 -2.698000 3.347765 14 14 20
4.025618 -2.775442 3.275965 14 14 20
4.007088 -2.852884 3.204165 14 13 19
3.988559 -2.930326 3.132365 14 13 19
3.970030 -3.007768 3.060566 13 13 18
3.951501 -3.085210 2.988766 13 13 18
3.924550 -3.197849 2.884334 12 12 17
3.897661 -3.178587 2.782345 11 11 15
3.870773 -3.159326 2.680356 11 11 15
3.843884 -3.140064 2.578366 10 10 14
3.816996 -3.120803 2.476377 10 10 14
3.790107 -3.101542 2.374387 9 9 13
3.763218 -3.082280 2.272398 9 9 13
3.736330 -3.063019 2.170409 8 8 12
3.709441 -3.043758 2.068419 8 8 12
3.682552 -3.024496 1.966430 7 7 10
3.655664 -3.005235 1.864440 7 6 9
3.628775 -2.985974 1.762451 7 6 9
3.601886 -2.966712 1.660462 6 6 8
3.574998 -2.947451 1.558472 6 6 8
3.548109 -2.928189 1.456483 5 5 7
3.521221 -2.908928 1.354493 5 5 7
3.494332 -2.889667 1.252504 4 4 6
3.467443 -2.870405 1.150515 4 4 6
3.439049 -2.850065 1.042813 3 3 4
3.504429 -2.895143 0.970777 3 3 4
3.569810 -2.940221 0.898741 2 2 3
3.635190 -2.985299 0.826704 1 1 2
3.700570 -3.030376 0.754668 1 1 2
3.809235 -3.105358 0.637729 0 0 1
3.485442 -1.685476 4.363992 21 21 30
3.456417 -1.736994 4.274554 21 21 30
3.427391 -1.788512 4.185116 21 21 30
3.398365 -1.840030 4.095677 21 21 30
3.369340 -1.891549 4.006239 21 20 29
3.340314 -1.943067 3.916800 21 20 29
3.311289 -1.994585 3.827362 21 20 29
3.282263 -2.046103 3.737924 20 20 28
3.253237 -2.097621 3.648485 20 20 28
3.224212 -2.149140 3.559047 20 20 28
3.195186 -2.200658 3.469609 20 20 28
3.166160 -2.252176 3.380170 19 19 26
3.137135 -2.303694 3.290732 19 19 26
3.108109 -2.355213 3.201294 19 19 26
3.079083 -2.406731 3.111855 19 19 26
3.050058 -2.458249 3.022417 18 18 25
3.021032 -2.509767 2.932979 18 18 25
2.992006 -2.561285 2.843540 18 18 25
2.962981 -2.612804 2.754102 17 17 24
2.923407 -2.683045 2.632161 17 17 24
2.902653 -2.613051 2.553637 18 18 25
2.881899 -2.543057 2.475113 19 19 26
2.861145 -2.473064 2.396589 20 20 28
2.840391 -2.403070 2.318065 21 20 29
2.819637 -2.333077 2.239542 21 20 29
2.798883 -2.263083 2.161018 21 21 30
2.778129 -2.193089 2.082494 22 22 31
2.757375 -2.123096 2.003970 23 23 32
2.736621 -2.053102 1.925446 24 24 34
2.715867 -1.983109 1.846922 25 25 35
2.695113 -1.913115 1.768398 26 26 36
2.674359 -1.843121 1.689874 27 27 37
2.653604 -1.773128 1.611351 28 27 38
2.632850 -1.703134 1.532827 28 27 38
2.612096 -1.633140 1.454303 28 28 40
2.591342 -1.563147 1.375779 29 29 41
2.570588 -1.493153 1.297255 30 30 42
2.548672 -1.419240 1.214333 31 31 43
2.540648 -1.410340 1.107786 33 33 46
2.532624 -1.401441 1.001239 35 34 48
2.524601 -1.392542 0.894692 36 36 51
2.516577 -1.383643 0.788145 37 37 52
2.501958 -1.370535 0.612875 41 41 57
3.931706 -1.783202 4.746521 18 18 25
3.943775 -1.811326 4.849279 18 18 25
3.955843 -1.839450 4.952037 17 17 24
3.971345 -1.875573 5.084025 17 17 24
3.981245 -1.888894 5.189952 16 16 23
3.991146 -1.902214 5.295878 16 16 23
4.001046 -1.915535 5.401804 16 16 23
4.010946 -1.928856 5.507731 16 16 23
4.023906 -1.946292 5.646384 15 15 21
4.030958 -1.966236 5.751495 15 15 21
4.038010 -1.986180 5.856606 15 15 21
4.045061 -2.006124 5.961717 15 15 21
4.052113 -2.026068 6.066828 15 15 21
4.059165 -2.046012 6.171939 15 15 21
4.070060 -2.076825 6.334333 15 15 21
4.071499 -2.141032 6.420189 15 15 21
4.072938 -2.205238 6.506045 16 16 23
4.074377 -2.269445 6.591901 17 17 24
4.077074 -2.389826 6.752871 18 18 25
3.893557 -2.516387 6.790898 21 20 29
3.848970 -2.505019 6.694055 21 20 29
3.804383 -2.493651 6.597212 21 21 30
3.759797 -2.482283 6.500369 21 21 30
3.715210 -2.470915 6.403525 22 22 31
3.635907 -2.450696 6.231277 23 23 32
3.640799 -2.512013 6.143459 24 24 34
3.645692 -2.573331 6.055641 25 25 35
3.650584 -2.634649 5.967822 26 26 36
3.655477 -2.695967 5.880004 27 27 37
3.660369 -2.757284 5.792186 28 27 38
3.665262 -2.818602 5.704368 28 28 40
3.670154 -2.879920 5.616550 30 30 42
3.675046 -2.941238 5.528731 31 31 43
3.679939 -3.002555 5.440913 32 32 45
3.684831 -3.063873 5.353095 33 33 46
3.689724 -3.125191 5.265277 34 34 47
3.698500 -3.235192 5.107736 35 35 49
3.716071 -3.335283 5.141923 40 40 56
3.733641 -3.435375 5.176110 44 44 62
3.751211 -3.535467 5.210296 49 49 69
3.768781 -3.635559 5.244483 54 54 75
3.786352 -3.735651 5.278670 58 58 81
3.803922 -3.835742 5.312857 63 62 87
3.821492 -3.935834 5.347044 67 67 93
3.839062 -4.035926 5.381231 71 71 99
3.856633 -4.136018 5.415418 76 76 105
3.874203 -4.236110 5.449605 81 81 113
3.905988 -4.417176 5.511449 89 92 121
3.903269 -4.515932 5.553113 93 98 125
3.900551 -4.614687 5.594776 98 105 130
3.891909 -4.769487 5.670670 105 115 137
3.900516 -4.895615 5.711591 112 123 143
3.908028 -5.004003 5.749133 117 130 149
3.889388 -4.793946 5.591795 106 116 138
3.901456 -4.971517 5.648374 114 127 146
3.904750 -5.018764 5.665148 117 130 149
3.890258 -4.863180 5.534404 109 119 141
3.896007 -4.947644 5.561495 112 124 144
3.898967 -4.989688 5.577015 115 128 147
3.893697 -4.739652 5.740194 105 113 136
3.905191 -4.907868 5.795086 113 125 145
3.908617 -4.956030 5.813582 115 128 147
3.924409 -4.528247 5.695096 96 101 128
3.956950 -4.571814 5.815740 98 105 130
3.985579 -4.622298 5.915996 102 110 134
4.248922 -2.523405 6.788421 19 19 26
4.335003 -2.554468 6.732555 20 20 28
4.421084 -2.585532 6.676690 21 21 30
4.507165 -2.616595 6.620824 22 22 31
4.593246 -2.647659 6.564959 23 23 32
4.679327 -2.678722 6.509093 24 24 34
4.765408 -2.709786 6.453228 25 25 35
4.873262 -2.748706 6.383233 27 27 37
4.862809 -2.800840 6.290127 27 27 37
4.852357 -2.852974 6.197022 28 27 38
4.841904 -2.905109 6.103917 28 27 38
4.831451 -2.957243 6.010811 28 28 40
4.820999 -3.009377 5.917706 29 29 41
4.810546 -3.061512 5.824601 29 29 41
4.800093 -3.113646 5.731496 30 30 42
4.789641 -3.165780 5.638390 30 30 42
4.779188 -3.217914 5.545285 31 31 43
4.768735 -3.270049 5.452180 32 32 45
4.758283 -3.322183 5.359074 32 32 45
4.747405 -3.376439 5.262179 33 33 46
4.692476 -3.438972 5.194590 35 34 48
4.637546 -3.501504 5.127000 36 36 51
4.582617 -3.564036 5.059411 38 38 53
4.527688 -3.626568 4.991821 40 40 56
4.472759 -3.689101 4.924232 42 41 58
4.417830 -3.751633 4.856642 43 43 60
4.362901 -3.814165 4.789053 46 46 64
4.307972 -3.876698 4.721463 48 48 66
4.253043 -3.939230 4.653874 49 49 69
4.148154 -4.058637 4.524809 53 53 74
4.062474 -4.089858 4.468417 55 55 76
3.976794 -4.121079 4.412026 56 56 79
3.790176 -4.188058 4.301744 60 60 84
3.693465 -4.223170 4.227488 62 62 86
3.614841 -4.260909 4.162540 64 64 90
3.827250 -4.257456 4.289012 61 61 85
3.700900 -4.310907 4.188226 64 64 90
3.663905 -4.331035 4.156489 65 65 91
3.830990 -4.337089 4.251616 63 62 87
3.772721 -4.363673 4.204174 64 64 90
3.744500 -4.380089 4.179435 65 65 91
3.772724 -4.118094 4.326282 58 58 81
3.637506 -4.167562 4.222265 62 62 86
3.601894 -4.187104 4.191627 63 62 87
3.865333 -3.956436 4.370476 53 53 74
3.783123 -3.911261 4.327380 54 54 75
3.740965 -3.893891 4.301419 54 54 75
4.072243 -2.553400 6.927548 21 20 29
4.030108 -2.497033 7.008438 21 20 29
3.948198 -2.384028 7.169282 21 20 29
3.990113 -1.732995 4.543387 19 19 26
4.388546 -1.711560 4.382953 20 20 28
4.363310 -1.783031 4.307118 20 20 28
4.338075 -1.854503 4.231284 20 20 28
4.312839 -1.925974 4.155450 19 19 26
4.287603 -1.997445 4.079615 19 19 26
4.262368 -2.068917 4.003781 18 18 25
4.237132 -2.140388 3.927947 18 18 25
4.211897 -2.211859 3.852112 18 18 25
4.186661 -2.283331 3.776278 17 17 24
4.161426 -2.354802 3.700443 17 17 24
4.136190 -2.426273 3.624609 17 17 24
4.110955 -2.497745 3.548775 16 16 23
4.085719 -2.569216 3.472940 16 16 23
4.060484 -2.640687 3.397106 16 16 23
4.035248 -2.712159 3.321272 15 15 21
4.010013 -2.783630 3.245437 15 15 21
3.984777 -2.855101 3.169603 14 14 20
3.959542 -2.926573 3.093769 14 14 20
3.934306 -2.998044 3.017934 14 14 20
3.897602 -3.101998 2.907635 14 13 19
3.873813 -3.085842 2.804344 14 13 19
3.850025 -3.069686 2.701054 13 13 18
3.826237 -3.053530 2.597763 13 13 18
3.802448 -3.037374 2.494473 12 12 17
3.778660 -3.021218 2.391182 12 12 17
3.754871 -3.005062 2.287892 11 11 15
3.731083 -2.988906 2.184601 11 11 15
3.707294 -2.972749 2.081311 10 10 14
3.683506 -2.956593 1.978020 10 10 14
3.659717 -2.940437 1.874730 9 9 13
3.635929 -2.924281 1.771439 9 9 13
3.612141 -2.908125 1.668149 8 8 12
3.588352 -2.891969 1.564858 8 8 12
3.564564 -2.875813 1.461568 7 7 10
3.540775 -2.859657 1.358277 7 7 10
3.516987 -2.843500 1.254987 7 6 9
3.493198 -2.827344 1.151696 7 6 9
3.468078 -2.810283 1.042621 7 6 9
3.530285 -2.859822 0.970705 6 6 8
3.592493 -2.909362 0.898789 5 5 7
3.654701 -2.958901 0.826873 4 4 6
3.716909 -3.008440 0.754956 3 3 4
3.820296 -3.090830 0.638217 1 1 2
3.592204 -1.624190 4.449577 21 20 29
3.560058 -1.672570 4.359456 21 20 29
3.527913 -1.720950 4.269335 21 20 29
3.495767 -1.769330 4.179213 21 20 29
3.463621 -1.817710 4.089092 21 20 29
3.431475 -1.866090 3.998970 21 20 29
3.399329 -1.914469 3.908849 21 20 29
3.367183 -1.962849 3.818728 21 20 29
3.335037 -2.011229 3.728606 21 20 29
3.302892 -2.059609 3.638485 21 20 29
3.270746 -2.107989 3.548363 21 20 29
3.238600 -2.156369 3.458242 21 20 29
3.206454 -2.204749 3.368121 21 20 29
3.174308 -2.253129 3.277999 21 20 29
3.142162 -2.301509 3.187878 21 20 29
3.110016 -2.349889 3.097757 21 20 29
3.077871 -2.398268 3.007635 21 20 29
3.045725 -2.446648 2.917514 21 20 29
3.013579 -2.495028 2.827392 21 20 29
2.969751 -2.560990 2.704520 21 20 29
2.957435 -2.492794 2.622707 21 20 29
2.945118 -2.424598 2.540894 21 21 30
2.932802 -2.356401 2.459080 22 22 31
2.920486 -2.288205 2.377267 22 22 31
2.908169 -2.220009 2.295454 23 23 32
2.895853 -2.151813 2.213640 24 24 34
2.883537 -2.083616 2.131827 24 24 34
2.871220 -2.015420 2.050014 25 25 35
2.858904 -1.947224 1.968201 25 25 35
2.846588 -1.879028 1.886387 26 26 36
2.834271 -1.810831 1.804574 27 27 37
2.821955 -1.742635 1.722761 27 27 37
2.809639 -1.674439 1.640947 28 27 38
2.797322 -1.606243 1.559134 28 27 38
2.785006 -1.538047 1.477321 28 28 40
2.772690 -1.469850 1.395508 29 29 41
2.760374 -1.401654 1.313694 29 29 41
2.747367 -1.329638 1.227299 30 30 42
2.748733 -1.320220 1.120503 31 31 43
2.750099 -1.310801 1.013708 33 33 46
2.751465 -1.301383 0.906913 34 34 47
2.752831 -1.291964 0.800117 35 35 49
2.753409 -1.277721 0.624328 37 37 52
4.019795 -1.755062 4.843365 18 18 25
4.027008 -1.781174 4.947105 18 18 25
4.034221 -1.807286 5.050845 18 18 25
4.043486 -1.840826 5.184094 17 17 24
4.048960 -1.851401 5.290650 17 17 24
4.054435 -1.861977 5.397205 17 17 24
4.059909 -1.872553 5.503760 17 17 24
4.065384 -1.883129 5.610315 17 17 24
4.072549 -1.896972 5.749792 17 17 24
4.073532 -1.913355 5.855747 17 17 24
4.074514 -1.929738 5.961702 17 17 24
4.075496 -1.946121 6.067657 17 17 24
4.076478 -1.962504 6.173612 17 17 24
4.077461 -1.978887 6.279567 18 18 25
4.078978 -2.004198 6.443265 18 18 25
4.069341 -2.064260 6.531557 19 19 26
4.059705 -2.124323 6.619849 20 20 28
4.050068 -2.184385 6.708141 21 20 29
4.032000 -2.296996 6.873679 21 21 30
3.833109 -2.399523 6.906431 24 24 34
3.790066 -2.383656 6.809521 24 24 34
3.747024 -2.367790 6.712612 25 25 35
3.703982 -2.351924 6.615702 25 25 35
3.660939 -2.336058 6.518793 26 26 36
3.584383 -2.307838 6.346426 26 26 36
3.574764 -2.375992 6.264217 28 27 38
3.565144 -2.444146 6.182008 28 28 40
3.555525 -2.512299 6.099798 30 30 42
3.545906 -2.580453 6.017589 31 31 43
3.536287 -2.648606 5.935379 33 33 46
3.526667 -2.716760 5.853170 34 34 47
3.517048 -2.784914 5.770961 35 35 49
3.507429 -2.853067 5.688751 36 36 51
3.497810 -2.921221 5.606542 38 38 53
3.488190 -2.989374 5.524332 39 39 54
3.478571 -3.057528 5.442123 41 41 57
3.461315 -3.179792 5.294644 42 42 59
3.448160 -3.280325 5.329515 47 47 65
3.435006 -3.380857 5.364385 50 50 70
3.421851 -3.481390 5.399256 55 55 76
3.408697 -3.581923 5.434127 58 58 81
3.395543 -3.682455 5.468998 63 62 87
3.382388 -3.782988 5.503868 66 66 92
3.369234 -3.883521 5.538739 70 70 98
3.356079 -3.984053 5.573610 74 74 103
3.342925 -4.084586 5.608481 78 78 109
3.329770 -4.185119 5.643351 82 82 114
3.305974 -4.366983 5.706433 89 92 121
3.273445 -4.460374 5.747857 93 98 125
3.240917 -4.553764 5.789280 98 104 129
3.185271 -4.698781 5.864589 104 112 135
3.155829 -4.821641 5.905763 109 119 141
3.130534 -4.927225 5.943525 113 125 145
3.179329 -4.722469 5.785663 105 113 136
3.137875 -4.895439 5.842596 112 123 143
3.126850 -4.941465 5.859466 114 127 146
3.162953 -4.789783 5.728317 107 117 139
3.143236 -4.872058 5.755576 111 122 142
3.133427 -4.913017 5.771183 112 124 144
3.192449 -4.669844 5.934145 103 111 135
3.153183 -4.833704 5.989374 110 121 142
3.141948 -4.880624 6.007970 112 124 144
3.284002 -4.476468 5.890641 95 100 127
3.297509 -4.526022 6.012599 98 104 129
3.306190 -4.581342 6.114008 100 107 132
4.184808 -2.447534 6.924930 23 23 32
4.269136 -2.492644 6.876457 24 24 34
4.353464 -2.537754 6.827983 25 25 35
4.437792 -2.582865 6.779510 26 26 36
4.522120 -2.627975 6.731036 26 26 36
4.606448 -2.673086 6.682563 27 27 37
4.690776 -2.718196 6.634089 28 27 38
4.796433 -2.774716 6.573356 28 28 40
4.778303 -2.823129 6.479423 29 29 41
4.760172 -2.871542 6.385491 29 29 41
4.742042 -2.919955 6.291558 30 30 42
4.723911 -2.968368 6.197626 30 30 42
4.705781 -3.016781 6.103693 31 31 43
4.687650 -3.065194 6.009761 31 31 43
4.669520 -3.113607 5.915829 32 32 45
4.651389 -3.162020 5.821896 33 33 46
4.633259 -3.210433 5.727964 33 33 46
4.615129 -3.258846 5.634031 34 34 47
4.596998 -3.307259 5.540099 34 34 47
4.578130 -3.357643 5.442343 35 34 48
4.513303 -3.409343 5.374369 35 35 49
4.448475 -3.461043 5.306396 37 37 52
4.383648 -3.512743 5.238423 39 39 54
4.318821 -3.564443 5.170449 40 40 56
4.253994 -3.616143 5.102476 42 41 58
4.189166 -3.667842 5.034503 42 42 59
4.124339 -3.719542 4.966529 44 44 62
4.059512 -3.771242 4.898556 46 46 64
3.994685 -3.822942 4.830582 47 47 65
3.870895 -3.921665 4.700785 49 49 69
3.783761 -3.927085 4.638542 51 51 71
3.696627 -3.932505 4.576300 53 53 74
3.506345 -3.944329 4.453306 56 56 79
3.408644 -3.949469 4.372510 59 59 82
3.327347 -3.962181 4.301423 62 62 86
3.526958 -4.019272 4.435665 57 57 80
3.397775 -4.033022 4.325657 61 61 85
3.359041 -4.041204 4.290818 62 62 86
3.514275 -4.094255 4.391272 59 59 82
3.454307 -4.102391 4.339404 61 61 85
3.424543 -4.109618 4.312205 62 62 86
3.504222 -3.874430 4.483493 56 55 77
3.367545 -3.881964 4.370299 59 59 82
3.330224 -3.889995 4.336660 60 60 84
3.629109 -3.743370 4.545859 51 51 71
3.562318 -3.676709 4.504005 51 51 71
3.526946 -3.647827 4.478166 52 52 73
3.998743 -2.450000 7.054718 25 25 35
3.955554 -2.395602 7.136398 25 25 35
3.871645 -2.286610 7.298878 25 25 35
4.065349 -1.718046 4.660414 19 19 26
4.467556 -1.737218 4.509386 21 20 29
4.438798 -1.802393 4.429254 21 20 29
4.410041 -1.867568 4.349123 20 20 28
4.381284 -1.932743 4.268991 20 20 28
4.352526 -1.997918 4.188859 20 20 28
4.323769 -2.063093 4.108728 19 19 26
4.295012 -2.128268 4.028596 19 19 26
4.266254 -2.193443 3.948465 18 18 25
4.237497 -2.258618 3.868333 18 18 25
4.208740 -2.323793 3.788202 18 18 25
4.179982 -2.388968 3.708070 17 17 24
4.151225 -2.454143 3.627939 17 17 24
4.122468 -2.519318 3.547807 17 17 24
4.093710 -2.584493 3.467676 16 16 23
4.064953 -2.649669 3.387544 16 16 23
4.036196 -2.714844 3.307413 15 15 21
4.007438 -2.780019 3.227281 15 15 21
3.978681 -2.845194 3.147149 15 15 21
3.949924 -2.910369 3.067018 14 14 20
3.908097 -3.005165 2.950468 14 14 20
3.888905 -2.990337 2.846029 14 14 20
3.869713 -2.975508 2.741589 14 14 20
3.850522 -2.960680 2.637149 14 14 20
3.831330 -2.945852 2.532710 14 14 20
3.812138 -2.931024 2.428270 14 14 20
3.792947 -2.916195 2.323830 15 15 21
3.773755 -2.901367 2.219391 15 15 21
3.754563 -2.886539 2.114951 15 15 21
3.735371 -2.871711 2.010511 15 15 21
3.716180 -2.856883 1.906072 15 15 21
3.696988 -2.842054 1.801632 15 15 21
3.677796 -2.827226 1.697192 15 15 21
3.658605 -2.812398 1.592753 15 15 21
3.639413 -2.797570 1.488313 16 16 23
3.620221 -2.782741 1.383874 16 16 23
3.601030 -2.767913 1.279434 16 16 23
3.581838 -2.753085 1.174994 16 16 23
3.561572 -2.737426 1.064705 16 16 23
3.614864 -2.793883 0.990757 14 14 20
3.668156 -2.850339 0.916808 13 13 18
3.721449 -2.906796 0.842859 12 12 17
3.774741 -2.963253 0.768910 10 10 14
3.863342 -3.057200 0.648791 7 7 10
3.681329 -1.575780 4.554305 20 20 28
3.648235 -1.618453 4.461679 21 20 29
3.615140 -1.661126 4.369053 21 20 29
3.582046 -1.703799 4.276427 21 20 29
3.548951 -1.746473 4.183801 21 20 29
3.515856 -1.789146 4.091175 21 21 30
3.482762 -1.831819 3.998549 21 21 30
3.449667 -1.874492 3.905923 21 21 30
3.416573 -1.917166 3.813297 22 22 31
3.383478 -1.959839 3.720671 22 22 31
3.350383 -2.002512 3.628045 22 22 31
3.317289 -2.045186 3.535419 23 23 32
3.284194 -2.087859 3.442793 23 23 32
3.251100 -2.130532 3.350167 23 23 32
3.218005 -2.173205 3.257541 24 24 34
3.184910 -2.215879 3.164915 24 24 34
3.151816 -2.258552 3.072289 24 24 34
3.118721 -2.301225 2.979663 24 24 34
3.085626 -2.343898 2.887037 25 25 35
3.040505 -2.402080 2.760750 25 25 35
3.036618 -2.337089 2.675562 26 26 36
3.032730 -2.272098 2.590374 26 26 36
3.028843 -2.207108 2.505187 27 27 37
3.024956 -2.142117 2.419999 27 27 37
3.021068 -2.077126 2.334812 28 27 38
3.017181 -2.012135 2.249624 28 28 40
3.013294 -1.947144 2.164437 28 28 40
3.009406 -1.882154 2.079249 29 29 41
3.005519 -1.817163 1.994061 29 29 41
3.001632 -1.752172 1.908874 30 30 42
2.997744 -1.687181 1.823686 30 30 42
2.993857 -1.622191 1.738499 31 31 43
2.989970 -1.557200 1.653311 31 31 43
2.986082 -1.492209 1.568124 32 32 45
2.982195 -1.427218 1.482936 33 33 46
2.978308 -1.362228 1.397748 33 33 46
2.974420 -1.297237 1.312561 34 34 47
2.970315 -1.228606 1.222602 34 34 47
2.973635 -1.225054 1.115494 34 34 47
2.976954 -1.221503 1.008385 34 34 47
2.980274 -1.217951 0.901277 34 34 47
2.983593 -1.214400 0.794169 34 34 47
2.987220 -1.209554 0.617906 34 34 47
4.086155 -1.735046 4.961466 19 19 26
4.088202 -1.758508 5.066067 19 19 26
4.090250 -1.781969 5.170667 18 18 25
4.092879 -1.812104 5.305021 18 18 25
4.093901 -1.818792 5.412026 18 18 25
4.094922 -1.825479 5.519031 18 18 25
4.095944 -1.832166 5.626036 18 18 25
4.096965 -1.838854 5.733041 18 18 25
4.098302 -1.847607 5.873106 19 19 26
4.093684 -1.858602 5.979660 19 19 26
4.089065 -1.869596 6.086213 19 19 26
4.084447 -1.880591 6.192767 20 20 28
4.079828 -1.891586 6.299320 20 20 28
4.075210 -1.902580 6.405873 21 20 29
4.068074 -1.919567 6.570496 21 20 29
4.048485 -1.972858 6.661447 22 22 31
4.028895 -2.026149 6.752399 23 23 32
4.009306 -2.079440 6.843350 24 24 34
3.972578 -2.179356 7.013873 27 27 37
3.762242 -2.257330 7.042529 29 29 41
3.722199 -2.238081 6.944949 29 29 41
3.682157 -2.218832 6.847369 29 29 41
3.642114 -2.199583 6.749789 29 29 41
3.602071 -2.180333 6.652209 29 29 41
3.530849 -2.146096 6.478650 30 30 42
3.503692 -2.214697 6.400854 32 32 45
3.476534 -2.283299 6.323058 34 34 47
3.449377 -2.351900 6.245262 35 34 48
3.422220 -2.420501 6.167467 36 36 51
3.395062 -2.489103 6.089671 38 38 53
3.367905 -2.557704 6.011875 40 40 56
3.340748 -2.626305 5.934080 42 41 58
3.313590 -2.694907 5.856284 43 43 60
3.286433 -2.763508 5.778488 45 45 63
3.259276 -2.832109 5.700692 47 47 65
3.232118 -2.900710 5.622897 49 48 68
3.183399 -3.023777 5.483335 52 52 73
3.140832 -3.115060 5.520097 56 55 77
3.098264 -3.206342 5.556859 60 60 84
3.055697 -3.297624 5.593620 64 64 90
3.013129 -3.388906 5.630382 69 69 96
2.970562 -3.480188 5.667143 72 72 101
2.927994 -3.571470 5.703905 77 76 107
2.885427 -3.662752 5.740667 81 81 113
2.842859 -3.754034 5.777428 84 86 116
2.800292 -3.845317 5.814190 89 92 121
2.757724 -3.936599 5.850951 93 98 125
2.680720 -4.101728 5.917453 100 107 132
2.621430 -4.180406 5.959766 105 113 136
2.562140 -4.259084 6.002078 109 119 141
2.464792 -4.379397 6.078537 115 128 147
2.400020 -4.487189 6.121459 120 135 152
2.344285 -4.579741 6.160721 126 142 157
2.454947 -4.403213 6.000041 116 129 148
2.363789 -4.555004 6.059436 123 139 155
2.339481 -4.595335 6.076959 126 142 157
2.421890 -4.465061 5.943738 119 133 150
2.378525 -4.537256 5.972168 122 137 154
2.356875 -4.573125 5.988356 124 140 156
2.477636 -4.351242 6.147596 114 127 146
2.391241 -4.494994 6.205157 122 137 154
2.366418 -4.536059 6.224418 124 140 156
2.622163 -4.193723 6.103223 106 116 138
2.616827 -4.240674 6.226831 109 119 141
2.605904 -4.292505 6.329854 112 123 143
4.105215 -2.341474 7.082893 28 28 40
4.182792 -2.400749 7.038575 29 29 41
4.260369 -2.460024 6.994257 29 29 41
4.337946 -2.519299 6.949939 29 29 41
4.415523 -2.578574 6.905621 30 30 42
4.493100 -2.637849 6.861303 30 30 42
4.570677 -2.697124 6.816984 31 31 43
4.667876 -2.771392 6.761457 32 32 45
4.647896 -2.814951 6.665544 32 32 45
4.627916 -2.858511 6.569632 32 32 45
4.607936 -2.902070 6.473719 32 32 45
4.587956 -2.945630 6.377807 32 32 45
4.567976 -2.989189 6.281894 32 32 45
4.547996 -3.032749 6.185981 32 32 45
4.528017 -3.076308 6.090069 32 32 45
4.508037 -3.119868 5.994156 32 32 45
4.488057 -3.163427 5.898244 32 32 45
4.468077 -3.206986 5.802331 32 32 45
4.448097 -3.250546 5.706418 32 32 45
4.427304 -3.295878 5.606602 32 32 45
4.356472 -3.332326 5.534837 34 34 47
4.285640 -3.368774 5.463072 35 34 48
4.214807 -3.405222 5.391307 36 36 51
4.143975 -3.441670 5.319542 37 37 52
4.073143 -3.478117 5.247777 39 39 54
4.002311 -3.514565 5.176012 41 41 57
3.931479 -3.551013 5.104247 42 41 58
3.860647 -3.587461 5.032482 43 43 60
3.789815 -3.623909 4.960717 44 44 62
3.654559 -3.693507 4.823680 47 47 65
3.565037 -3.680771 4.766065 49 49 69
3.475514 -3.668035 4.708451 52 52 73
3.280610 -3.640897 4.595533 56 56 79
3.179890 -3.625110 4.519996 59 59 82
3.094454 -3.620070 4.452918 62 62 86
3.287204 -3.717206 4.573486 57 57 80
3.152687 -3.703006 4.470129 61 61 85
3.111571 -3.702644 4.437108 63 62 87
3.259802 -3.786491 4.526553 59 59 82
3.197019 -3.781582 4.477697 61 61 85
3.165244 -3.782207 4.451854 62 62 86
3.291919 -3.573351 4.628870 56 55 77
3.150950 -3.551596 4.523017 59 59 82
3.111306 -3.551389 4.491124 61 61 85
3.440197 -3.468848 4.690153 51 51 71
3.384017 -3.389707 4.654983 52 52 73
3.352994 -3.353918 4.632407 52 52 73
3.914246 -2.314765 7.202429 30 30 42
3.867643 -2.267573 7.286673 30 30 42
3.777034 -2.172912 7.454287 29 29 41
4.116801 -1.701860 4.788191 19 19 26
4.518860 -1.766322 4.649844 21 20 29
4.489493 -1.825637 4.565493 21 20 29
4.460125 -1.884953 4.481142 21 20 29
4.430758 -1.944268 4.396791 20 20 28
4.401391 -2.003583 4.312440 20 20 28
4.372023 -2.062899 4.228089 20 20 28
4.342656 -2.122214 4.143738 19 19 26
4.313289 -2.181530 4.059388 19 19 26
4.283922 -2.240845 3.975037 18 18 25
4.254554 -2.300161 3.890686 18 18 25
4.225187 -2.359476 3.806335 18 18 25
4.195820 -2.418792 3.721984 17 17 24
4.166452 -2.478107 3.637633 17 17 24
4.137085 -2.537422 3.553282 17 17 24
4.107718 -2.596738 3.468931 16 16 23
4.078351 -2.656053 3.384580 16 16 23
4.048983 -2.715369 3.300230 16 16 23
4.019616 -2.774684 3.215879 15 15 21
3.990249 -2.834000 3.131528 15 15 21
3.947535 -2.920273 3.008841 14 14 20
3.936818 -2.904854 2.903279 15 15 21
3.926102 -2.889435 2.797718 16 16 23
3.915386 -2.874016 2.692156 17 17 24
3.904670 -2.858597 2.586595 18 18 25
3.893953 -2.843179 2.481033 19 19 26
3.883237 -2.827760 2.375471 20 20 28
3.872521 -2.812341 2.269910 21 20 29
3.861805 -2.796922 2.164348 21 21 30
3.851088 -2.781503 2.058786 22 22 31
3.840372 -2.766084 1.953225 23 23 32
3.829656 -2.750665 1.847663 24 24 34
3.818940 -2.735246 1.742102 25 25 35
3.808223 -2.719827 1.636540 26 26 36
3.797507 -2.704408 1.530978 27 27 37
3.786791 -2.688990 1.425417 28 27 38
3.776075 -2.673571 1.319855 28 28 40
3.765359 -2.658152 1.214293 29 29 41
3.754042 -2.641869 1.102820 30 30 42
3.790053 -2.706726 1.025408 28 27 38
3.826064 -2.771583 0.947996 25 25 35
3.862075 -2.836440 0.870583 21 21 30
3.898086 -2.901297 0.793171 19 19 26
3.957988 -3.009325 0.667288 14 14 20
3.753266 -1.521859 4.668140 20 20 28
3.721204 -1.556002 4.571692 21 20 29
3.689142 -1.590145 4.475245 21 21 30
3.657080 -1.624287 4.378797 22 22 31
3.625018 -1.658430 4.282349 22 22 31
3.592956 -1.692573 4.185902 23 23 32
3.560895 -1.726715 4.089454 24 24 34
3.528833 -1.760858 3.993006 25 25 35
3.496771 -1.795000 3.896559 26 26 36
3.464709 -1.829143 3.800111 26 26 36
3.432647 -1.863286 3.703663 27 27 37
3.400585 -1.897428 3.607216 28 27 38
3.368523 -1.931571 3.510768 28 28 40
3.336461 -1.965713 3.414320 29 29 41
3.304399 -1.999856 3.317873 29 29 41
3.272338 -2.033999 3.221425 30 30 42
3.240276 -2.068141 3.124977 31 31 43
3.208214 -2.102284 3.028530 32 32 45
3.176152 -2.136427 2.932082 33 33 46
3.132438 -2.182977 2.800585 34 34 47
3.137821 -2.124393 2.710948 34 34 47
3.143204 -2.065809 2.621311 34 34 47
3.148587 -2.007225 2.531674 35 34 48
3.153969 -1.948641 2.442037 35 34 48
3.159352 -1.890057 2.352400 35 35 49
3.164735 -1.831473 2.262763 35 35 49
3.170118 -1.772889 2.173126 35 35 49
3.175500 -1.714305 2.083490 36 36 51
3.180883 -1.655721 1.993853 36 36 51
3.186266 -1.597137 1.904216 36 36 51
3.191648 -1.538553 1.814579 37 37 52
3.197031 -1.479969 1.724942 37 37 52
3.202414 -1.421385 1.635305 38 38 53
3.207797 -1.362801 1.545668 38 38 53
3.213179 -1.304217 1.456031 38 38 53
3.218562 -1.245633 1.366394 39 39 54
3.223945 -1.187049 1.276758 39 39 54
3.229629 -1.125183 1.182100 39 39 54
3.216026 -1.135774 1.076277 36 36 51
3.202422 -1.146365 0.970453 34 34 47
3.188819 -1.156956 0.864630 31 31 43
3.175215 -1.167547 0.758806 28 27 38
3.150863 -1.185560 0.585061 23 23 32
4.127041 -1.715198 5.089972 19 19 26
4.123201 -1.736118 5.195060 19 19 26
4.119362 -1.757039 5.300147 19 19 26
4.114429 -1.783911 5.435128 18 18 25
4.111735 -1.787132 5.542264 19 19 26
4.109041 -1.790352 5.649401 19 19 26
4.106347 -1.793573 5.756537 19 19 26
4.103652 -1.796793 5.863674 19 19 26
4.100126 -1.801009 6.003911 19 19 26
4.091876 -1.807100 6.110638 19 19 26
4.083627 -1.813190 6.217365 20 20 28
4.075378 -1.819281 6.324092 20 20 28
4.067128 -1.825371 6.430819 21 20 29
4.058879 -1.831462 6.537546 21 20 29
4.046134 -1.840872 6.702437 21 21 30
4.019510 -1.887412 6.795287 22 22 31
3.992887 -1.933952 6.888136 23 23 32
3.966263 -1.980493 6.980986 24 24 34
3.916347 -2.067751 7.155068 26 26 36
3.698868 -2.122755 7.183692 28 28 40
3.660612 -2.097919 7.086658 28 28 40
3.622356 -2.073084 6.989625 29 29 41
3.584100 -2.048248 6.892591 30 30 42
3.545844 -2.023412 6.795558 30 30 42
3.477800 -1.979239 6.622971 31 31 43
3.432499 -2.041211 6.548117 34 34 47
3.387197 -2.103182 6.473263 35 35 49
3.341895 -2.165154 6.398409 38 38 53
3.296594 -2.227126 6.323556 40 40 56
3.251292 -2.289098 6.248702 42 42 59
3.205990 -2.351069 6.173848 44 44 62
3.160688 -2.413041 6.098994 47 47 65
3.115387 -2.475013 6.024140 49 48 68
3.070085 -2.536984 5.949286 51 51 71
3.024783 -2.598956 5.874432 53 53 74
2.979482 -2.660928 5.799578 56 55 77
2.898213 -2.772102 5.665295 59 59 82
2.831942 -2.847842 5.702272 63 62 87
2.765671 -2.923583 5.739250 67 67 93
2.699401 -2.999324 5.776228 70 70 98
2.633130 -3.075065 5.813206 74 74 103
2.566859 -3.150806 5.850184 78 78 109
2.500588 -3.226546 5.887161 82 82 114
2.434317 -3.302287 5.924139 85 87 117
2.368047 -3.378028 5.961117 90 93 121
2.301776 -3.453769 5.998095 93 98 125
2.235505 -3.529510 6.035072 97 102 128
2.115621 -3.666525 6.101965 104 112 135
2.036629 -3.725511 6.144117 108 118 140
1.957637 -3.784497 6.186268 112 123 143
1.830271 -3.872720 6.262377 118 131 149
1.738065 -3.958217 6.305333 123 139 155
1.658750 -4.031559 6.344621 126 143 158
1.815261 -3.894002 6.183970 119 133 150
1.685481 -4.014426 6.243413 126 142 157
1.650894 -4.046375 6.260948 127 145 159
1.767288 -3.945258 6.127762 121 136 153
1.705551 -4.002529 6.156216 124 140 156
1.674753 -4.030928 6.172412 126 142 157
1.849465 -3.848206 6.331352 117 130 149
1.726479 -3.962217 6.388957 123 139 155
1.691175 -3.994709 6.408227 125 141 156
2.031968 -3.736605 6.287689 109 119 141
2.012545 -3.778671 6.411645 111 122 142
1.986666 -3.824186 6.514980 112 124 144
4.031071 -2.237996 7.235651 28 27 38
4.099749 -2.308881 7.193763 28 27 38
4.168427 -2.379765 7.151875 28 28 40
4.237105 -2.450649 7.109987 28 28 40
4.305783 -2.521534 7.068099 29 29 41
4.374460 -2.592418 7.026212 29 29 41
4.443138 -2.663303 6.984324 30 30 42
4.529187 -2.752116 6.931841 30 30 42
4.508747 -2.790810 6.833960 30 30 42
4.488307 -2.829504 6.736078 30 30 42
4.467867 -2.868198 6.638197 30 30 42
4.447427 -2.906893 6.540315 30 30 42
4.426987 -2.945587 6.442433 30 30 42
4.406547 -2.984281 6.344552 30 30 42
4.386107 -3.022975 6.246670 30 30 42
4.365667 -3.061669 6.148788 30 30 42
4.345228 -3.100364 6.050907 30 30 42
4.324788 -3.139058 5.953025 30 30 42
4.304348 -3.177752 5.855144 30 30 42
4.283076 -3.218021 5.753278 30 30 42
4.207852 -3.238411 5.679647 32 32 45
4.132629 -3.258800 5.606016 34 34 47
4.057405 -3.279190 5.532385 35 35 49
3.982182 -3.299579 5.458754 37 37 52
3.906958 -3.319969 5.385122 38 38 53
3.831735 -3.340358 5.311491 40 40 56
3.756511 -3.360748 5.237860 42 41 58
3.681288 -3.381137 5.164229 43 43 60
3.606064 -3.401527 5.090598 45 45 63
3.462423 -3.440461 4.949997 48 48 66
3.378361 -3.411933 4.889868 49 49 69
3.294298 -3.383405 4.829739 50 50 70
3.110510 -3.322988 4.711222 53 53 74
3.016703 -3.288499 4.633052 55 55 76
2.936329 -3.267233 4.562967 56 56 79
3.109416 -3.397275 4.682361 54 54 75
2.983470 -3.357800 4.574850 56 55 77
2.944592 -3.349541 4.540191 56 56 79
3.076822 -3.458298 4.627884 55 55 76
3.017875 -3.441518 4.576930 56 55 77
2.987742 -3.436001 4.549736 56 56 79
3.127706 -3.260532 4.751287 52 52 73
2.996380 -3.212585 4.641719 55 55 76
2.958880 -3.204758 4.608232 56 55 77
3.283454 -3.180577 4.828827 49 49 69
3.238915 -3.092417 4.798817 50 50 70
3.213577 -3.051278 4.778358 51 51 71
3.841980 -2.185731 7.349598 28 28 40
3.786554 -2.150955 7.434537 28 28 40
3.678522 -2.080898 7.603613 28 27 38
4.138587 -1.676446 4.903923 16 16 23
4.534581 -1.792240 4.782568 19 19 26
4.507320 -1.849536 4.696139 18 18 25
4.480059 -1.906831 4.609711 18 18 25
4.452798 -1.964127 4.523283 18 18 25
4.425537 -2.021422 4.436854 18 18 25
4.398276 -2.078718 4.350426 18 18 25
4.371015 -2.136014 4.263997 17 17 24
4.343754 -2.193309 4.177569 17 17 24
4.316493 -2.250605 4.091140 17 17 24
4.289232 -2.307900 4.004712 17 17 24
4.261971 -2.365196 3.918283 16 16 23
4.234710 -2.422492 3.831855 16 16 23
4.207449 -2.479787 3.745426 16 16 23
4.180188 -2.537083 3.658998 16 16 23
4.152927 -2.594378 3.572569 15 15 21
4.125666 -2.651674 3.486141 15 15 21
4.098405 -2.708970 3.399712 15 15 21
4.071144 -2.766265 3.313284 15 15 21
4.043883 -2.823561 3.226855 15 15 21
4.004232 -2.906896 3.101147 14 14 20
4.007183 -2.890816 2.995182 16 16 23
4.010134 -2.874735 2.889217 18 18 25
4.013085 -2.858654 2.783252 20 20 28
4.016036 -2.842574 2.677287 21 21 30
4.018987 -2.826493 2.571323 23 23 32
4.021938 -2.810413 2.465358 24 24 34
4.024889 -2.794332 2.359393 26 26 36
4.027840 -2.778251 2.253428 28 27 38
4.030791 -2.762171 2.147463 29 29 41
4.033742 -2.746090 2.041498 31 31 43
4.036693 -2.730010 1.935534 33 33 46
4.039644 -2.713929 1.829569 35 34 48
4.042595 -2.697848 1.723604 35 35 49
4.045546 -2.681768 1.617639 37 37 52
4.048497 -2.665687 1.511674 39 39 54
4.051448 -2.649607 1.405710 41 41 57
4.054399 -2.633526 1.299745 42 42 59
4.057515 -2.616545 1.187845 44 44 62
4.067635 -2.680775 1.102593 41 41 57
4.077754 -2.745005 1.017341 36 36 51
4.087874 -2.809235 0.932089 33 33 46
4.097993 -2.873466 0.846837 29 29 41
4.114975 -2.980739 0.707879 22 22 31
3.804791 -1.455495 4.767061 18 18 25
3.773680 -1.480716 4.667603 19 19 26
3.742569 -1.505936 4.568145 20 20 28
3.711458 -1.531157 4.468687 21 20 29
3.680347 -1.556378 4.369230 21 21 30
3.649236 -1.581599 4.269772 22 22 31
3.618124 -1.606819 4.170314 23 23 32
3.587013 -1.632040 4.070856 24 24 34
3.555902 -1.657261 3.971399 25 25 35
3.524791 -1.682482 3.871941 26 26 36
3.493680 -1.707702 3.772483 27 27 37
3.462569 -1.732923 3.673025 28 27 38
3.431458 -1.758144 3.573568 28 28 40
3.400346 -1.783365 3.474110 29 29 41
3.369235 -1.808585 3.374652 30 30 42
3.338124 -1.833806 3.275194 31 31 43
3.307013 -1.859027 3.175736 32 32 45
3.275902 -1.884248 3.076279 33 33 46
3.244791 -1.909468 2.976821 34 34 47
3.202374 -1.943855 2.841219 35 35 49
3.213408 -1.897074 2.745378 35 34 48
3.224443 -1.850293 2.649536 34 34 47
3.235478 -1.803512 2.553695 34 34 47
3.246513 -1.756731 2.457853 33 33 46
3.257548 -1.709950 2.362012 33 33 46
3.268583 -1.663169 2.266170 32 32 45
3.279618 -1.616388 2.170329 31 31 43
3.290653 -1.569607 2.074487 31 31 43
3.301688 -1.522826 1.978645 30 30 42
3.312723 -1.476045 1.882804 30 30 42
3.323758 -1.429264 1.786962 29 29 41
3.334793 -1.382483 1.691121 29 29 41
3.345828 -1.335702 1.595279 28 28 40
3.356863 -1.288921 1.499438 28 27 38
3.367898 -1.242140 1.403596 28 27 38
3.378933 -1.195359 1.307755 27 27 37
3.389968 -1.148578 1.211913 27 27 37
3.401621 -1.099177 1.110704 26 26 36
3.366450 -1.112946 1.010358 23 23 32
3.331279 -1.126714 0.910012 20 20 28
3.296107 -1.140482 0.809667 16 16 23
3.260936 -1.154250 0.709321 14 13 19
3.201160 -1.177258 0.544996 8 8 12
4.135696 -1.685367 5.206027 16 16 23
4.125014 -1.703052 5.311236 16 16 23
4.114332 -1.720737 5.416445 16 16 23
4.100611 -1.743452 5.551582 17 17 24
4.094453 -1.743227 5.658623 17 17 24
4.088295 -1.743002 5.765665 17 17 24
4.082137 -1.742776 5.872706 18 18 25
4.075979 -1.742551 5.979748 18 18 25
4.067918 -1.742256 6.119860 18 18 25
4.057219 -1.743805 6.226532 19 19 26
4.046519 -1.745354 6.333204 19 19 26
4.035820 -1.746903 6.439877 20 20 28
4.025120 -1.748452 6.546549 20 20 28
4.014421 -1.750001 6.653221 21 20 29
3.997890 -1.752395 6.818027 21 20 29
3.965627 -1.792068 6.912266 22 22 31
3.933363 -1.831742 7.006504 23 23 32
3.901099 -1.871416 7.100743 24 24 34
3.840608 -1.945800 7.277429 26 26 36
3.618533 -1.974720 7.308868 29 29 41
3.581154 -1.944013 7.213183 29 29 41
3.543774 -1.913307 7.117497 30 30 42
3.506395 -1.882601 7.021812 31 31 43
3.469016 -1.851894 6.926126 32 32 45
3.402532 -1.797279 6.755937 33 33 46
3.340386 -1.843503 6.681795 36 36 51
3.278241 -1.889728 6.607652 39 39 54
3.216096 -1.935952 6.533510 42 41 58
3.153950 -1.982176 6.459367 45 45 63
3.091805 -2.028401 6.385225 48 48 66
3.029660 -2.074625 6.311082 50 50 70
2.967514 -2.120849 6.236940 54 54 75
2.905369 -2.167074 6.162797 56 56 79
2.843224 -2.213298 6.088655 59 59 82
2.781078 -2.259523 6.014513 63 62 87
2.718933 -2.305747 5.940370 65 65 91
2.607448 -2.388671 5.807363 70 70 98
2.522415 -2.441621 5.845594 75 75 104
2.437383 -2.494571 5.883825 79 79 110
2.352351 -2.547521 5.922057 83 83 114
2.267319 -2.600471 5.960288 87 89 119
2.182286 -2.653422 5.998519 91 95 123
2.097254 -2.706372 6.036751 95 100 127
2.012222 -2.759322 6.074982 99 106 131
1.927190 -2.812272 6.113213 104 112 135
1.842157 -2.865222 6.151445 108 118 140
1.757125 -2.918172 6.189676 112 123 143
1.603302 -3.013959 6.258837 119 134 151
1.511012 -3.047144 6.302164 123 139 155
1.418722 -3.080328 6.345490 127 145 159
1.271995 -3.127184 6.423424 133 153 165
1.159373 -3.181893 6.467922 139 160 170
1.062578 -3.228743 6.508534 143 166 175
1.250673 -3.143788 6.345350 134 154 166
1.092123 -3.220882 6.406965 142 165 174
1.049926 -3.241276 6.425077 144 167 176
1.189329 -3.179333 6.290020 138 159 170
1.113912 -3.215991 6.319507 141 164 173
1.076359 -3.234098 6.336216 143 166 175
1.298164 -3.108774 6.492003 133 152 164
1.147958 -3.181718 6.551665 140 161 171
1.104936 -3.202411 6.571523 141 164 173
1.504761 -3.055311 6.445873 124 140 156
1.475199 -3.088979 6.570389 126 142 157
1.438251 -3.124228 6.674369 127 145 159
3.936034 -2.124400 7.364806 27 27 37
3.993160 -2.203990 7.321243 28 27 38
4.050287 -2.283581 7.277680 28 27 38
4.107413 -2.363172 7.234117 28 28 40
4.164540 -2.442763 7.190555 29 29 41
4.221666 -2.522354 7.146992 29 29 41
4.278793 -2.601944 7.103429 30 30 42
4.350368 -2.701666 7.048848 30 30 42
4.331243 -2.735888 6.949054 30 30 42
4.312117 -2.770110 6.849260 30 30 42
4.292992 -2.804333 6.749466 30 30 42
4.273866 -2.838555 6.649671 30 30 42
4.254741 -2.872777 6.549877 30 30 42
4.235615 -2.907000 6.450083 30 30 42
4.216490 -2.941222 6.350289 30 30 42
4.197364 -2.975444 6.250495 30 30 42
4.178239 -3.009666 6.150700 30 30 42
4.159113 -3.043889 6.050906 30 30 42
4.139988 -3.078111 5.951112 30 30 42
4.120084 -3.113726 5.847256 29 29 41
4.044026 -3.117785 5.771793 31 31 43
3.967968 -3.121844 5.696331 33 33 46
3.891910 -3.125902 5.620869 35 34 48
3.815852 -3.129961 5.545407 36 36 51
3.739794 -3.134020 5.469945 38 38 53
3.663736 -3.138079 5.394482 40 40 56
3.587678 -3.142137 5.319020 41 41 57
3.511620 -3.146196 5.243558 42 42 59
3.435562 -3.150255 5.168096 44 44 62
3.290327 -3.158005 5.023998 48 48 66
3.214172 -3.107399 4.968005 49 49 69
3.138016 -3.056793 4.912013 52 52 73
2.970762 -2.949920 4.802108 57 57 80
2.886583 -2.889267 4.729067 61 61 85
2.813195 -2.844932 4.662189 63 63 88
2.958378 -3.018029 4.762608 58 58 81
2.844317 -2.942890 4.661003 63 62 87
2.808509 -2.923313 4.627605 64 64 90
2.917985 -3.064223 4.699453 61 61 85
2.864341 -3.030618 4.651020 63 62 87
2.836453 -3.016258 4.624677 63 63 88
